ply
		format ascii 1.0
		element vertex 20841
		property float x
		property float y
		property float z
		property uchar red
		property uchar green
		property uchar blue
		end_header
inf -inf -inf 161 226 254
inf -inf -inf 161 226 254
inf -inf -inf 161 226 254
-2.468750 1.875000 106.179611 161 226 254
-2.531250 1.875000 106.179611 161 226 254
-2.593750 1.875000 106.179611 162 226 254
-2.656250 1.875000 106.179611 162 226 254
-2.718750 1.875000 106.179611 161 226 254
-2.781250 1.875000 106.179611 161 226 254
-2.843750 1.875000 106.179611 161 226 254
-9.300000 6.000000 339.774750 161 226 254
9.500000 -6.000000 -339.774750 161 226 254
2.425000 -1.500000 -84.943687 161 226 254
1.500000 -0.909091 -51.481022 161 226 254
1.074468 -0.638298 -36.146252 161 225 254
1.009804 -0.588235 -33.311249 161 225 255
-3.281250 1.875000 106.179611 161 225 254
-3.343750 1.875000 106.179611 161 225 254
-3.406250 1.875000 106.179611 160 225 254
-3.468750 1.875000 106.179611 161 225 254
-3.531250 1.875000 106.179611 161 225 254
-3.593750 1.875000 106.179611 160 224 254
-3.656250 1.875000 106.179611 160 224 254
-3.843750 1.875000 106.179611 160 224 254
-20.833334 10.000000 566.291260 159 224 254
-63.500000 30.000000 1698.873779 159 223 254
inf -inf -inf 159 223 254
32.750000 -15.000000 -849.436890 159 223 254
6.650000 -3.000000 -169.887375 159 223 254
6.750000 -3.000000 -169.887375 159 223 255
-4.468750 1.875000 106.179611 159 223 255
-36.250000 15.000000 849.436890 160 223 255
0.656250 -0.267857 -15.168516 160 223 254
0.665179 -0.267857 -15.168516 160 224 254
0.668142 -0.265487 -15.034281 160 224 255
0.648305 -0.254237 -14.397236 160 224 254
0.656780 -0.254237 -14.397236 160 224 254
0.708696 -0.260870 -14.772816 161 224 254
-5.281250 1.875000 106.179611 160 225 254
-5.343750 1.875000 106.179611 160 224 254
0.772321 -0.267857 -15.168516 161 224 254
0.788288 -0.270270 -15.305169 161 224 254
0.797297 -0.270270 -15.305169 161 224 254
0.806306 -0.270270 -15.305169 161 224 254
-22.625000 7.500000 424.718445 161 224 254
-22.875000 7.500000 424.718445 161 224 255
-46.250000 15.000000 849.436890 161 224 254
inf -inf -inf 162 224 254
inf -inf -inf 162 224 254
0.927184 -0.291262 -16.493919 161 224 254
0.936893 -0.291262 -16.493919 161 224 254
0.937500 -0.288462 -16.335325 161 224 254
0.929245 -0.283019 -16.027111 161 224 254
0.921296 -0.277778 -15.730312 161 223 254
0.930556 -0.277778 -15.730312 161 224 254
inf -inf -inf 161 224 254
inf -inf -inf 160 224 254
inf -inf -inf 160 224 254
0.933036 -0.267857 -15.168516 160 223 254
0.941964 -0.267857 -15.168516 161 223 255
0.959459 -0.270270 -15.305169 160 223 254
1.004505 -0.270270 -15.305169 159 222 254
1.013514 -0.270270 -15.305169 159 222 254
0.126480 -0.032293 -1.828712 159 222 255
0.127694 -0.032328 -1.830683 159 221 255
0.128772 -0.032328 -1.830683 158 221 255
14.625000 7.750000 424.718445 161 223 254
14.375000 7.750000 424.718445 161 223 254
9.416667 5.166667 283.145630 160 223 254
3.468750 1.937500 106.179611 160 223 254
3.406250 1.937500 106.179611 160 223 255
3.343750 1.937500 106.179611 160 223 254
3.281250 1.937500 106.179611 160 222 254
3.218750 1.937500 106.179611 159 223 254
3.156250 1.937500 106.179611 159 223 254
3.093750 1.937500 106.179611 160 223 254
3.031250 1.937500 106.179611 160 223 255
2.968750 1.937500 106.179611 160 223 254
2.906250 1.937500 106.179611 161 223 255
2.843750 1.937500 106.179611 160 223 254
2.781250 1.937500 106.179611 160 223 254
2.718750 1.937500 106.179611 160 223 254
2.656250 1.937500 106.179611 160 223 254
2.593750 1.937500 106.179611 159 223 254
2.531250 1.937500 106.179611 159 223 255
2.468750 1.937500 106.179611 159 223 254
2.406250 1.937500 106.179611 158 222 254
2.343750 1.937500 106.179611 158 222 254
2.281250 1.937500 106.179611 158 222 255
2.218750 1.937500 106.179611 157 222 255
2.156250 1.937500 106.179611 157 221 255
2.093750 1.937500 106.179611 155 219 254
2.031250 1.937500 106.179611 135 180 219
1.968750 1.937500 106.179611 106 110 140
1.906250 1.937500 106.179611 111 98 116
1.843750 1.937500 106.179611 108 93 107
4.750000 5.166667 283.145630 96 80 88
27.500000 31.000000 1698.873779 67 52 53
-8.833333 -10.333333 -566.291260 60 43 39
-2.550000 -3.100000 -169.887375 62 46 42
-1.750000 -2.214286 -121.348129 106 103 102
-1.678571 -2.214286 -121.348129 144 144 137
-0.055024 -0.148325 -8.128583 75 68 55
-0.050000 -0.147619 -8.089875 69 64 52
-0.044811 -0.146226 -8.013556 54 53 46
-0.039906 -0.145540 -7.975933 45 47 44
-0.035047 -0.144860 -7.938663 48 50 46
-0.030233 -0.144186 -7.901739 59 57 46
-0.025463 -0.143519 -7.865156 59 57 43
-0.020930 -0.144186 -7.901739 64 63 51
-0.016908 -0.149758 -8.207120 73 72 59
-0.012755 -0.158163 -8.667724 66 69 55
-0.007692 -0.158974 -8.712173 55 60 45
-0.002551 -0.158163 -8.667724 43 49 37
0.002551 -0.158163 -8.667724 33 45 35
0.007653 -0.158163 -8.667724 35 50 39
0.013158 -0.163158 -8.941441 38 55 47
0.019774 -0.175141 -9.598157 39 62 56
0.025714 -0.177143 -9.707850 46 76 62
0.031792 -0.179191 -9.820080 62 96 75
0.039157 -0.186747 -10.234179 72 107 90
0.045181 -0.186747 -10.234179 81 112 102
0.050000 -0.182353 -9.993375 119 137 125
0.055882 -0.182353 -9.993375 165 167 146
-0.906250 1.937500 106.179611 114 135 124
-0.968750 1.937500 106.179611 117 132 119
-1.031250 1.937500 106.179611 114 124 112
-1.093750 1.937500 106.179611 119 132 135
-1.718750 1.937500 106.179611 97 123 157
0.279412 -0.303922 -16.655624 97 122 156
0.270642 -0.284404 -15.585998 91 117 152
0.272321 -0.276786 -15.168516 106 144 182
0.278761 -0.274336 -15.034281 148 205 239
0.285088 -0.271930 -14.902402 159 223 253
-34.500000 31.000000 1698.873779 161 225 254
-35.500000 31.000000 1698.873779 162 226 254
3.650000 -3.100000 -169.887375 162 226 254
0.635593 -0.525424 -28.794472 162 226 254
0.652542 -0.525424 -28.794472 162 226 254
-2.468750 1.937500 106.179611 162 226 254
-2.531250 1.937500 106.179611 162 226 254
-2.593750 1.937500 106.179611 162 226 254
-2.656250 1.937500 106.179611 162 226 254
-2.718750 1.937500 106.179611 161 226 254
-2.781250 1.937500 106.179611 160 225 254
-2.843750 1.937500 106.179611 160 225 254
-23.250000 15.500000 849.436890 160 225 254
inf -inf -inf 160 225 255
4.409091 -2.818182 -154.443069 160 225 254
1.500000 -0.939394 -51.481022 159 225 254
1.442857 -0.885714 -48.539249 159 224 254
0.971698 -0.584906 -32.054222 159 224 254
0.875000 -0.516667 -28.314564 159 224 254
-3.343750 1.937500 106.179611 159 224 255
-3.406250 1.937500 106.179611 159 224 255
-3.531250 1.937500 106.179611 159 224 255
-3.593750 1.937500 106.179611 159 223 255
-3.656250 1.937500 106.179611 158 223 255
-3.718750 1.937500 106.179611 158 223 255
-3.781250 1.937500 106.179611 158 223 255
-3.843750 1.937500 106.179611 158 223 255
-3.906250 1.937500 106.179611 158 223 255
-31.750000 15.500000 849.436890 158 223 255
32.250000 -15.500000 -849.436890 158 223 254
16.375000 -7.750000 -424.718445 158 223 254
6.045455 -2.818182 -154.443069 158 223 254
6.136364 -2.818182 -154.443069 158 223 254
0.630435 -0.269565 -14.772816 159 223 255
0.633621 -0.267241 -14.645464 159 223 254
0.631356 -0.262712 -14.397236 159 224 254
0.634454 -0.260504 -14.276250 159 224 255
0.642857 -0.260504 -14.276250 159 224 254
0.615079 -0.246032 -13.483126 160 224 254
0.623016 -0.246032 -13.483126 160 224 254
0.685345 -0.267241 -14.645464 160 223 255
0.700000 -0.269565 -14.772816 160 224 255
0.702586 -0.267241 -14.645464 160 224 255
0.699153 -0.262712 -14.397236 161 224 254
0.763393 -0.276786 -15.168516 160 224 254
0.752174 -0.269565 -14.772816 160 224 254
0.767544 -0.271930 -14.902402 161 224 254
0.783186 -0.274336 -15.034281 161 224 254
0.799107 -0.276786 -15.168516 161 224 254
0.808036 -0.276786 -15.168516 161 224 254
0.816964 -0.276786 -15.168516 161 224 255
0.825893 -0.276786 -15.168516 161 224 255
0.834821 -0.276786 -15.168516 161 224 254
0.859091 -0.281818 -15.444307 161 224 254
0.884259 -0.287037 -15.730312 161 224 254
0.919048 -0.295238 -16.179750 161 223 254
0.919811 -0.292453 -16.027111 160 224 255
0.912037 -0.287037 -15.730312 160 224 254
0.912844 -0.284404 -15.585998 160 223 254
0.922018 -0.284404 -15.585998 161 223 254
0.931193 -0.284404 -15.585998 160 223 254
0.915179 -0.276786 -15.168516 160 223 255
0.924107 -0.276786 -15.168516 160 223 254
0.933036 -0.276786 -15.168516 160 223 254
0.941964 -0.276786 -15.168516 160 223 255
0.950893 -0.276786 -15.168516 159 222 254
0.959821 -0.276786 -15.168516 159 222 254
0.968750 -0.276786 -15.168516 160 222 254
0.977679 -0.276786 -15.168516 160 222 255
0.977876 -0.274336 -15.034281 159 222 254
0.986726 -0.274336 -15.034281 158 222 255
0.986842 -0.271930 -14.902402 159 222 255
0.986957 -0.269565 -14.772816 160 221 255
0.978632 -0.264957 -14.520288 159 222 255
0.978814 -0.262712 -14.397236 159 221 255
0.917323 -0.244094 -13.376959 159 221 255
0.917969 -0.242188 -13.272451 159 221 255
0.925781 -0.242188 -13.272451 158 221 255
14.625000 8.000000 424.718445 161 223 254
19.166666 10.666667 566.291260 161 223 254
14.125000 8.000000 424.718445 160 223 255
3.468750 2.000000 106.179611 159 223 254
3.406250 2.000000 106.179611 160 223 255
3.343750 2.000000 106.179611 160 222 255
3.281250 2.000000 106.179611 159 222 255
3.218750 2.000000 106.179611 159 222 255
3.156250 2.000000 106.179611 159 223 255
3.093750 2.000000 106.179611 159 223 255
3.031250 2.000000 106.179611 159 223 255
6.785714 4.571429 242.696259 160 223 255
6.642857 4.571429 242.696259 160 223 255
2.843750 2.000000 106.179611 160 223 254
2.781250 2.000000 106.179611 160 223 254
2.718750 2.000000 106.179611 160 223 254
2.656250 2.000000 106.179611 161 223 254
2.593750 2.000000 106.179611 160 223 254
2.531250 2.000000 106.179611 159 223 254
2.468750 2.000000 106.179611 158 223 254
2.406250 2.000000 106.179611 158 222 255
2.343750 2.000000 106.179611 158 222 254
2.281250 2.000000 106.179611 157 222 255
2.218750 2.000000 106.179611 156 222 255
2.156250 2.000000 106.179611 156 221 255
2.093750 2.000000 106.179611 155 220 254
2.031250 2.000000 106.179611 134 187 229
1.968750 2.000000 106.179611 106 119 158
1.906250 2.000000 106.179611 112 101 121
5.900000 6.400000 339.774750 110 94 105
5.700000 6.400000 339.774750 97 80 86
-inf -inf -inf 69 52 52
-5.300000 -6.400000 -339.774750 59 41 38
-4.250000 -5.333333 -283.145630 60 44 41
-1.884615 -2.461539 -130.682602 106 107 114
-0.059524 -0.152381 -8.089875 62 61 55
-0.054762 -0.152381 -8.089875 57 58 53
-0.050000 -0.152381 -8.089875 54 55 49
-0.045024 -0.151659 -8.051535 48 50 45
-0.040094 -0.150943 -8.013556 48 50 47
-0.035211 -0.150235 -7.975933 61 59 53
-0.030374 -0.149533 -7.938663 76 71 59
-0.025463 -0.148148 -7.865156 95 86 73
-0.020642 -0.146789 -7.792999 125 114 98
-0.016279 -0.148837 -7.901739 144 131 108
-0.011848 -0.151659 -8.051535 147 134 107
-0.007246 -0.154589 -8.207120 136 124 97
-0.002475 -0.158416 -8.410266 108 101 81
0.002488 -0.159204 -8.452108 94 90 71
0.007614 -0.162437 -8.623725 95 93 70
0.013158 -0.168421 -8.941441 84 86 65
0.019774 -0.180791 -9.598157 66 74 58
0.026471 -0.188235 -9.993375 66 84 72
0.051205 -0.192771 -10.234179 187 200 204
0.045741 -0.100946 -5.359223 96 138 120
0.048742 -0.100629 -5.342371 97 135 117
0.051887 -0.100629 -5.342371 105 138 118
-1.093750 2.000000 106.179611 114 142 135
0.257009 -0.299065 -15.877325 88 106 134
0.254464 -0.285714 -15.168516 83 102 131
0.256522 -0.278261 -14.772816 81 98 128
0.258475 -0.271186 -14.397236 87 111 143
0.256098 -0.260163 -13.811982 126 164 200
0.262097 -0.258065 -13.700595 151 208 242
0.270161 -0.258065 -13.700595 161 225 254
3.136364 -2.909091 -154.443069 162 226 254
5.916667 -5.333333 -283.145630 161 226 255
3.650000 -3.200000 -169.887375 162 226 255
2.343750 -2.000000 -106.179611 162 226 254
-7.700000 6.400000 339.774750 162 226 254
-2.468750 2.000000 106.179611 161 225 254
-2.531250 2.000000 106.179611 160 225 254
-2.593750 2.000000 106.179611 160 225 254
-2.656250 2.000000 106.179611 160 224 254
-2.843750 2.000000 106.179611 158 224 255
-23.250000 16.000000 849.436890 158 223 255
47.500000 -32.000000 -1698.873779 158 223 255
4.409091 -2.909091 -154.443069 158 223 255
2.152174 -1.391304 -73.864075 157 223 254
1.442857 -0.914286 -48.539249 157 223 255
0.459821 -0.285714 -15.168516 157 223 255
0.441176 -0.268908 -14.276250 157 222 254
3.343750 -2.000000 -106.179611 157 222 255
-3.593750 2.000000 106.179611 157 223 255
-3.656250 2.000000 106.179611 157 223 254
-3.718750 2.000000 106.179611 157 223 255
-3.781250 2.000000 106.179611 157 222 255
-3.843750 2.000000 106.179611 157 222 255
-3.906250 2.000000 106.179611 157 223 255
-15.875000 8.000000 424.718445 157 223 255
21.500000 -10.666667 -566.291260 158 222 254
13.100000 -6.400000 -339.774750 157 222 255
13.300000 -6.400000 -339.774750 157 222 255
0.630435 -0.278261 -14.772816 158 223 254
0.633621 -0.275862 -14.645464 159 223 254
0.631356 -0.271186 -14.397236 159 224 255
0.639831 -0.271186 -14.397236 159 224 255
0.648305 -0.271186 -14.397236 159 224 254
0.610236 -0.251969 -13.376959 160 223 254
0.613281 -0.250000 -13.272451 160 223 254
0.630952 -0.253968 -13.483126 160 223 255
0.659836 -0.262295 -13.925195 161 223 254
0.668033 -0.262295 -13.925195 160 224 254
0.660000 -0.256000 -13.590990 160 224 254
0.695833 -0.266667 -14.157282 161 224 255
0.710084 -0.268908 -14.276250 161 224 254
0.718487 -0.268908 -14.276250 161 224 255
0.692000 -0.256000 -13.590990 161 224 254
0.705645 -0.258065 -13.700595 161 224 255
0.776316 -0.280702 -14.902402 161 224 255
0.799107 -0.285714 -15.168516 161 224 254
0.808036 -0.285714 -15.168516 161 224 254
0.809735 -0.283186 -15.034281 161 224 254
0.811404 -0.280702 -14.902402 161 224 255
0.820175 -0.280702 -14.902402 161 224 255
0.814655 -0.275862 -14.645464 160 224 254
0.809322 -0.271186 -14.397236 159 224 254
0.885321 -0.293578 -15.585998 160 223 254
0.894495 -0.293578 -15.585998 160 223 255
0.903670 -0.293578 -15.585998 160 223 254
0.904545 -0.290909 -15.444307 160 223 255
0.905405 -0.288288 -15.305169 160 223 255
0.906250 -0.285714 -15.168516 160 223 255
0.915179 -0.285714 -15.168516 160 223 254
0.924107 -0.285714 -15.168516 161 222 254
0.893162 -0.273504 -14.520288 160 222 254
0.909483 -0.275862 -14.645464 160 223 255
0.918103 -0.275862 -14.645464 159 222 254
0.926724 -0.275862 -14.645464 159 222 254
0.927350 -0.273504 -14.520288 159 222 254
0.935897 -0.273504 -14.520288 159 222 255
0.928571 -0.268908 -14.276250 158 221 255
0.936975 -0.268908 -14.276250 158 222 255
0.929752 -0.264463 -14.040279 158 221 255
0.930328 -0.262295 -13.925195 159 221 255
0.930894 -0.260163 -13.811982 159 221 255
0.931452 -0.258065 -13.700595 159 221 255
0.917323 -0.251969 -13.376959 159 221 255
0.917969 -0.250000 -13.272451 158 221 255
19.500000 11.000000 566.291260 160 223 254
28.750000 16.500000 849.436890 160 223 254
14.125000 8.250000 424.718445 160 223 254
3.468750 2.062500 106.179611 160 223 254
3.406250 2.062500 106.179611 160 223 255
3.343750 2.062500 106.179611 160 223 255
3.281250 2.062500 106.179611 160 223 255
3.218750 2.062500 106.179611 160 223 255
3.156250 2.062500 106.179611 159 223 254
3.093750 2.062500 106.179611 159 223 254
3.031250 2.062500 106.179611 159 223 255
6.785714 4.714286 242.696259 159 223 254
6.642857 4.714286 242.696259 159 223 255
2.843750 2.062500 106.179611 159 223 254
2.781250 2.062500 106.179611 160 223 254
2.718750 2.062500 106.179611 161 223 254
2.656250 2.062500 106.179611 161 223 254
2.593750 2.062500 106.179611 160 223 254
2.531250 2.062500 106.179611 160 223 254
2.468750 2.062500 106.179611 159 223 255
2.406250 2.062500 106.179611 159 222 255
2.343750 2.062500 106.179611 158 222 255
2.281250 2.062500 106.179611 156 222 255
2.218750 2.062500 106.179611 156 221 255
2.156250 2.062500 106.179611 155 221 255
2.093750 2.062500 106.179611 155 220 255
2.031250 2.062500 106.179611 140 199 242
5.250000 5.500000 283.145630 116 139 187
7.625000 8.250000 424.718445 114 108 134
9.833333 11.000000 566.291260 112 98 111
14.250000 16.500000 849.436890 99 83 90
-27.500000 -33.000000 -1698.873779 71 54 55
-26.500000 -33.000000 -1698.873779 56 41 39
-5.100000 -6.600000 -339.774750 56 41 38
-0.060096 -0.158654 -8.167663 59 59 56
-0.054762 -0.157143 -8.089875 54 56 53
-0.050239 -0.157895 -8.128583 50 51 49
-0.045455 -0.157895 -8.128583 47 48 45
-0.040670 -0.157895 -8.128583 55 54 51
-0.035714 -0.157143 -8.089875 73 69 62
-0.030374 -0.154206 -7.938663 85 80 73
-0.025463 -0.152778 -7.865156 124 114 102
-0.020642 -0.151376 -7.792999 158 143 126
-0.016055 -0.151376 -7.792999 171 153 127
-0.011468 -0.151376 -7.792999 174 157 127
-0.006977 -0.153488 -7.901739 159 148 126
-0.002326 -0.153488 -7.901739 157 147 128
0.002336 -0.154206 -7.938663 177 160 130
0.007463 -0.164179 -8.452108 185 167 133
0.012690 -0.167513 -8.623725 182 166 133
0.018421 -0.173684 -8.941441 164 158 138
0.024862 -0.182320 -9.386043 156 163 165
0.026316 -0.102167 -5.259671 232 243 250
0.029687 -0.103125 -5.308980 229 239 247
0.033123 -0.104101 -5.359223 203 216 224
0.036392 -0.104430 -5.376183 136 158 157
0.039432 -0.104101 -5.359223 83 119 99
0.042453 -0.103774 -5.342371 79 120 93
0.045597 -0.103774 -5.342371 64 105 85
0.048437 -0.103125 -5.308980 65 106 87
0.051402 -0.102804 -5.292442 79 123 96
0.054517 -0.102804 -5.292442 85 127 106
0.057813 -0.103125 -5.308980 93 138 146
0.247664 -0.308411 -15.877325 100 115 138
0.245536 -0.294643 -15.168516 97 112 133
0.241525 -0.279661 -14.397236 101 115 136
0.241803 -0.270492 -13.925195 105 117 139
0.238281 -0.257812 -13.272451 100 118 140
0.244186 -0.255814 -13.169564 106 134 166
0.250000 -0.253846 -13.068260 129 177 217
0.255725 -0.251908 -12.968502 157 220 251
0.263359 -0.251908 -12.968502 160 225 254
3.227273 -3.000000 -154.443069 159 224 255
3.318182 -3.000000 -154.443069 159 224 255
3.750000 -3.300000 -169.887375 159 224 254
-6.416667 5.500000 283.145630 158 224 254
-2.468750 2.062500 106.179611 157 223 255
-2.531250 2.062500 106.179611 156 222 254
-2.593750 2.062500 106.179611 156 222 255
-2.843750 2.062500 106.179611 156 221 255
-2.906250 2.062500 106.179611 156 221 255
inf -inf -inf 155 221 255
4.409091 -3.000000 -154.443069 155 221 255
2.152174 -1.434783 -73.864075 154 221 255
1.530303 -1.000000 -51.481022 154 221 255
0.432773 -0.277311 -14.276250 155 221 255
0.423387 -0.266129 -13.700595 155 221 255
0.434959 -0.268293 -13.811982 155 221 255
-3.593750 2.062500 106.179611 157 222 255
-3.656250 2.062500 106.179611 157 222 255
-3.718750 2.062500 106.179611 157 222 255
-3.781250 2.062500 106.179611 157 222 255
-3.843750 2.062500 106.179611 157 222 254
-3.906250 2.062500 106.179611 157 222 254
-15.875000 8.250000 424.718445 157 222 255
21.500000 -11.000000 -566.291260 157 222 254
13.100000 -6.600000 -339.774750 157 222 255
13.300000 -6.600000 -339.774750 157 222 255
0.605469 -0.257812 -13.272451 159 223 255
0.608527 -0.255814 -13.169564 159 224 254
0.616279 -0.255814 -13.169564 160 224 254
0.644000 -0.264000 -13.590990 161 224 254
0.652000 -0.264000 -13.590990 161 224 254
0.654762 -0.261905 -13.483126 161 224 254
0.668000 -0.264000 -13.590990 161 224 254
0.710084 -0.277311 -14.276250 161 224 254
0.718487 -0.277311 -14.276250 162 224 255
0.692000 -0.264000 -13.590990 161 224 254
0.705645 -0.266129 -13.700595 160 224 254
0.743697 -0.277311 -14.276250 161 224 254
0.764957 -0.282051 -14.520288 161 224 255
0.786957 -0.286957 -14.772816 160 224 255
0.802632 -0.289474 -14.902402 160 223 254
0.811404 -0.289474 -14.902402 160 224 254
0.806035 -0.284483 -14.645464 160 223 255
0.800847 -0.279661 -14.397236 159 223 254
0.809322 -0.279661 -14.397236 159 223 254
0.885321 -0.302752 -15.585998 159 223 254
0.894495 -0.302752 -15.585998 159 223 255
0.864035 -0.289474 -14.902402 159 223 254
0.796000 -0.264000 -13.590990 159 222 254
0.580925 -0.190751 -9.820080 159 223 255
0.586705 -0.190751 -9.820080 159 223 255
0.868644 -0.279661 -14.397236 159 223 254
0.877119 -0.279661 -14.397236 159 222 254
0.893162 -0.282051 -14.520288 159 222 255
0.901709 -0.282051 -14.520288 159 222 255
0.918103 -0.284483 -14.645464 159 222 255
0.926724 -0.284483 -14.645464 159 222 255
0.927350 -0.282051 -14.520288 158 222 255
0.935897 -0.282051 -14.520288 158 222 255
0.928571 -0.277311 -14.276250 158 222 255
0.936975 -0.277311 -14.276250 158 222 255
0.922131 -0.270492 -13.925195 158 221 255
0.922764 -0.268293 -13.811982 158 221 255
0.916000 -0.264000 -13.590990 158 221 255
0.916667 -0.261905 -13.483126 158 221 255
0.910156 -0.257812 -13.272451 158 221 255
0.917969 -0.257812 -13.272451 158 220 255
0.925781 -0.257812 -13.272451 158 220 255
29.250000 17.000000 849.436890 160 223 254
57.500000 34.000000 1698.873779 160 223 254
18.833334 11.333333 566.291260 160 223 254
9.250000 5.666667 283.145630 159 223 254
3.406250 2.125000 106.179611 159 223 254
3.343750 2.125000 106.179611 159 223 255
3.281250 2.125000 106.179611 159 223 255
3.218750 2.125000 106.179611 160 223 255
3.156250 2.125000 106.179611 159 223 255
3.093750 2.125000 106.179611 158 223 254
3.031250 2.125000 106.179611 159 223 254
7.916667 5.666667 283.145630 159 223 254
7.750000 5.666667 283.145630 160 223 255
2.843750 2.125000 106.179611 160 223 255
2.781250 2.125000 106.179611 160 223 255
2.718750 2.125000 106.179611 160 223 255
2.656250 2.125000 106.179611 160 223 255
2.593750 2.125000 106.179611 160 223 255
2.531250 2.125000 106.179611 160 223 255
2.468750 2.125000 106.179611 159 223 255
2.406250 2.125000 106.179611 159 222 255
2.343750 2.125000 106.179611 158 222 255
2.281250 2.125000 106.179611 157 221 255
2.218750 2.125000 106.179611 156 221 255
2.156250 2.125000 106.179611 155 221 255
6.700000 6.800000 339.774750 155 220 255
8.125000 8.500000 424.718445 144 203 246
7.875000 8.500000 424.718445 121 145 195
15.250000 17.000000 849.436890 113 108 140
29.500000 34.000000 1698.873779 108 96 116
-inf -inf -inf 94 79 90
-27.500000 -34.000000 -1698.873779 68 54 56
-8.833333 -11.333333 -566.291260 54 41 39
-0.060096 -0.163462 -8.167663 56 56 53
-0.055825 -0.165049 -8.246960 52 52 50
-0.050971 -0.165049 -8.246960 47 47 45
-0.046341 -0.165854 -8.287189 44 45 43
-0.041463 -0.165854 -8.287189 59 55 50
-0.036232 -0.164251 -8.207120 75 69 60
-0.031100 -0.162679 -8.128583 85 79 73
-0.025701 -0.158879 -7.938663 127 113 99
-0.020642 -0.155963 -7.792999 156 136 114
-0.016055 -0.155963 -7.792999 168 147 120
-0.011261 -0.153153 -7.652585 165 146 120
-0.006608 -0.149780 -7.484025 150 138 121
-0.002110 -0.143460 -7.168244 172 158 130
0.002049 -0.139344 -6.962597 191 172 134
0.005929 -0.134387 -6.714916 197 177 140
0.008834 -0.120141 -6.003088 199 184 156
0.011905 -0.115646 -5.778482 195 196 194
0.014706 -0.111111 -5.551875 193 205 219
0.017350 -0.107256 -5.359223 216 229 243
0.020124 -0.105263 -5.259671 234 243 252
0.023220 -0.105263 -5.259671 233 242 252
0.026316 -0.105263 -5.259671 235 245 253
0.029412 -0.105263 -5.259671 233 243 252
0.033019 -0.106918 -5.342371 216 229 244
0.036278 -0.107256 -5.359223 177 194 208
0.039432 -0.107256 -5.359223 93 117 114
0.042453 -0.106918 -5.342371 46 74 57
0.045455 -0.106583 -5.325623 38 66 50
0.048287 -0.105919 -5.292442 40 69 51
0.051084 -0.105263 -5.259671 46 78 57
0.054012 -0.104938 -5.243438 47 79 61
0.056231 -0.103343 -5.163750 48 77 72
0.060559 -0.105590 -5.276006 78 115 132
0.065916 -0.109325 -5.462616 144 188 217
0.078778 -0.109325 -5.462616 84 110 145
0.229730 -0.306306 -15.305169 86 112 146
0.224576 -0.288136 -14.397236 89 114 148
0.233051 -0.288136 -14.397236 96 120 152
0.228000 -0.272000 -13.590990 104 127 156
0.230469 -0.265625 -13.272451 109 132 161
0.232824 -0.259542 -12.968502 102 128 159
0.231618 -0.250000 -12.491719 96 127 164
0.232143 -0.242857 -12.134812 118 158 197
0.234266 -0.237762 -11.880237 150 210 244
0.241259 -0.237762 -11.880237 155 221 254
0.270992 -0.259542 -12.968502 154 221 255
0.829545 -0.772727 -38.610767 154 220 255
-2.531250 2.125000 106.179611 151 219 254
-2.593750 2.125000 106.179611 152 219 254
inf -inf -inf 153 220 254
2.152174 -1.478261 -73.864075 154 220 255
0.971154 -0.653846 -32.670650 154 221 255
0.418699 -0.276423 -13.811982 154 221 255
0.416667 -0.269841 -13.483126 156 221 255
0.424603 -0.269841 -13.483126 156 221 254
-3.656250 2.125000 106.179611 157 222 255
-3.718750 2.125000 106.179611 157 222 255
-3.781250 2.125000 106.179611 157 222 255
-3.843750 2.125000 106.179611 157 222 255
-3.906250 2.125000 106.179611 157 222 255
-15.875000 8.500000 424.718445 157 222 255
21.833334 -11.333333 -566.291260 157 222 255
4.433333 -2.266667 -113.258255 157 222 255
4.218750 -2.125000 -106.179611 157 222 255
0.599237 -0.259542 -12.968502 159 224 254
0.576087 -0.246377 -12.310679 159 223 254
0.624031 -0.263566 -13.169564 159 223 254
0.631783 -0.263566 -13.169564 160 223 255
0.639535 -0.263566 -13.169564 160 224 254
0.652344 -0.265625 -13.272451 160 224 254
0.676000 -0.272000 -13.590990 160 223 254
0.684000 -0.272000 -13.590990 160 224 254
0.681102 -0.267717 -13.376959 160 224 254
0.809735 -0.300885 -15.034281 159 223 254
0.820175 -0.298246 -14.902402 159 223 255
0.809322 -0.288136 -14.397236 159 223 255
0.846491 -0.298246 -14.902402 159 223 255
0.780000 -0.272000 -13.590990 159 223 255
0.576023 -0.198830 -9.934935 159 223 254
0.575145 -0.196532 -9.820080 158 222 255
0.574286 -0.194286 -9.707850 158 222 255
0.580000 -0.194286 -9.707850 159 222 255
0.592486 -0.196532 -9.820080 159 222 254
0.884615 -0.290598 -14.520288 158 222 255
0.893162 -0.290598 -14.520288 158 222 255
0.894068 -0.288136 -14.397236 158 222 255
0.910256 -0.290598 -14.520288 158 222 255
0.934783 -0.295652 -14.772816 158 222 255
0.938017 -0.280992 -14.040279 158 221 255
0.930894 -0.276423 -13.811982 157 221 255
0.931452 -0.274194 -13.700595 157 221 255
0.917323 -0.267717 -13.376959 157 220 255
0.917969 -0.265625 -13.272451 157 220 255
0.925781 -0.265625 -13.272451 157 220 254
58.500000 35.000000 1698.873779 160 223 254
-inf -inf -inf 160 223 254
28.250000 17.500000 849.436890 159 223 254
13.875000 8.750000 424.718445 159 223 255
3.406250 2.187500 106.179611 159 223 255
3.343750 2.187500 106.179611 158 223 254
3.281250 2.187500 106.179611 158 223 255
3.218750 2.187500 106.179611 159 223 255
3.156250 2.187500 106.179611 159 223 255
3.093750 2.187500 106.179611 159 223 254
3.031250 2.187500 106.179611 159 223 255
7.916667 5.833333 283.145630 159 223 255
7.750000 5.833333 283.145630 159 223 255
2.843750 2.187500 106.179611 159 223 255
2.781250 2.187500 106.179611 159 223 255
2.718750 2.187500 106.179611 159 224 254
2.656250 2.187500 106.179611 159 223 255
2.593750 2.187500 106.179611 159 223 255
2.531250 2.187500 106.179611 159 223 255
6.583333 5.833333 283.145630 159 223 254
9.625000 8.750000 424.718445 159 222 255
9.375000 8.750000 424.718445 158 222 254
12.166667 11.666667 566.291260 157 222 255
11.833333 11.666667 566.291260 155 221 255
34.500000 35.000000 1698.873779 155 221 255
33.500000 35.000000 1698.873779 154 220 254
32.500000 35.000000 1698.873779 143 198 240
31.500000 35.000000 1698.873779 120 137 179
-inf -inf -inf 111 104 132
-inf -inf -inf 104 92 112
-inf -inf -inf 85 72 82
-27.500000 -35.000000 -1698.873779 64 51 53
-26.500000 -35.000000 -1698.873779 53 40 38
-0.060096 -0.168269 -8.167663 51 52 49
-0.056373 -0.171569 -8.327812 50 49 47
-0.051471 -0.171569 -8.327812 44 45 43
-0.046798 -0.172414 -8.368836 41 42 40
-0.042289 -0.174129 -8.452108 54 50 42
-0.037500 -0.175000 -8.494369 67 60 48
-0.031553 -0.169903 -8.246960 73 65 56
-0.026316 -0.167464 -8.128583 108 92 74
-0.021028 -0.163551 -7.938663 134 111 86
-0.015766 -0.157658 -7.652585 149 125 97
-0.011211 -0.156951 -7.618268 144 124 102
-0.006522 -0.152174 -7.386408 143 128 106
-0.002049 -0.143443 -6.962597 171 152 115
0.001953 -0.136719 -6.636226 183 161 118
0.005300 -0.123675 -6.003088 188 166 124
0.008503 -0.119048 -5.778482 192 180 159
0.011438 -0.114379 -5.551875 192 199 209
0.014196 -0.110410 -5.359223 192 205 221
0.017188 -0.109375 -5.308980 210 224 240
0.020124 -0.108359 -5.259671 225 238 251
0.023220 -0.108359 -5.259671 227 239 251
0.026316 -0.108359 -5.259671 232 243 253
0.029687 -0.109375 -5.308980 227 239 251
0.033019 -0.110063 -5.342371 205 217 237
0.036278 -0.110410 -5.359223 175 191 214
0.039432 -0.110410 -5.359223 115 131 145
0.042587 -0.110410 -5.359223 54 68 60
0.045455 -0.109718 -5.325623 42 58 44
0.048287 -0.109034 -5.292442 37 53 40
0.050926 -0.108025 -5.243438 32 49 37
0.053846 -0.107692 -5.227304 33 47 37
0.056231 -0.106383 -5.163750 44 55 46
0.060000 -0.107692 -5.227304 82 94 89
0.064465 -0.110063 -5.342371 146 161 164
0.069132 -0.112540 -5.462616 139 158 178
0.072347 -0.112540 -5.462616 89 114 147
0.075563 -0.112540 -5.462616 78 104 137
0.077287 -0.110410 -5.359223 77 102 134
0.080442 -0.110410 -5.359223 78 105 139
0.207031 -0.273438 -13.272451 77 103 140
0.220000 -0.280000 -13.590990 80 106 145
0.220930 -0.271318 -13.169564 89 115 156
0.225191 -0.267176 -12.968502 90 117 157
0.224265 -0.257353 -12.491719 80 109 149
0.225000 -0.250000 -12.134812 99 128 164
0.227273 -0.244755 -11.880237 128 159 187
0.229452 -0.239726 -11.636122 144 197 233
0.231544 -0.234899 -11.401837 148 215 253
0.235099 -0.231788 -11.250820 148 216 254
0.280769 -0.269231 -13.068260 148 216 255
0.242515 -0.209581 -10.172897 148 216 254
0.247024 -0.208333 -10.112344 148 217 254
1.767857 -1.250000 -60.674065 154 221 255
1.402778 -0.972222 -47.190937 155 221 255
0.817460 -0.555556 -26.966251 156 222 255
0.416667 -0.277778 -13.483126 157 222 255
0.424603 -0.277778 -13.483126 157 221 255
10.900000 -7.000000 -339.774750 157 221 254
-3.718750 2.187500 106.179611 157 222 255
-3.781250 2.187500 106.179611 156 222 255
-3.843750 2.187500 106.179611 157 222 255
-3.906250 2.187500 106.179611 156 222 255
4.433333 -2.333333 -113.258255 157 222 255
1.985294 -1.029412 -49.966877 157 222 255
2.014706 -1.029412 -49.966877 157 222 255
0.428161 -0.201149 -9.763642 158 222 255
0.568841 -0.253623 -12.310679 159 224 255
0.555944 -0.244755 -11.880237 159 223 254
0.562937 -0.244755 -11.880237 159 223 254
0.603704 -0.259259 -12.584250 159 223 254
0.611111 -0.259259 -12.584250 159 223 254
0.512270 -0.214724 -10.422539 159 224 255
0.505988 -0.209581 -10.172897 159 224 254
0.500000 -0.204678 -9.934935 159 224 255
0.502907 -0.203488 -9.877173 159 224 254
0.564327 -0.204678 -9.934935 160 223 255
0.563584 -0.202312 -9.820080 159 223 255
0.566092 -0.201149 -9.763642 159 223 255
0.568571 -0.200000 -9.707850 158 223 255
0.571023 -0.198864 -9.652692 158 223 255
0.576705 -0.198864 -9.652692 159 223 255
0.582386 -0.198864 -9.652692 158 222 255
0.598266 -0.202312 -9.820080 158 222 255
0.607558 -0.203488 -9.877173 158 222 255
0.613372 -0.203488 -9.877173 158 222 255
0.615607 -0.202312 -9.820080 158 222 255
0.621387 -0.202312 -9.820080 158 222 255
0.916000 -0.280000 -13.590990 157 220 255
0.924000 -0.280000 -13.590990 156 220 255
0.917323 -0.275591 -13.376959 156 220 255
0.917969 -0.273438 -13.272451 157 220 255
-inf -inf -inf 159 223 254
-28.750000 -18.000000 -849.436890 159 223 254
-inf -inf -inf 159 223 255
27.750000 18.000000 849.436890 159 223 255
3.406250 2.250000 106.179611 159 223 255
3.343750 2.250000 106.179611 158 223 254
3.281250 2.250000 106.179611 158 223 255
3.218750 2.250000 106.179611 158 223 255
3.156250 2.250000 106.179611 158 223 254
3.093750 2.250000 106.179611 158 223 255
12.125000 9.000000 424.718445 158 223 255
11.875000 9.000000 424.718445 158 223 254
11.625000 9.000000 424.718445 158 223 255
2.843750 2.250000 106.179611 158 223 255
2.781250 2.250000 106.179611 158 223 255
2.718750 2.250000 106.179611 158 223 255
2.656250 2.250000 106.179611 159 223 255
2.593750 2.250000 106.179611 159 222 255
6.750000 6.000000 283.145630 158 222 255
19.750000 18.000000 849.436890 158 223 254
19.250000 18.000000 849.436890 158 222 255
12.500000 12.000000 566.291260 158 222 254
12.166667 12.000000 566.291260 156 222 255
-35.500000 -36.000000 -1698.873779 155 221 255
-34.500000 -36.000000 -1698.873779 154 221 255
33.500000 36.000000 1698.873779 153 218 254
32.500000 36.000000 1698.873779 140 191 231
31.500000 36.000000 1698.873779 119 135 158
-inf -inf -inf 116 113 119
-inf -inf -inf 105 93 102
-inf -inf -inf 79 65 72
-inf -inf -inf 60 48 49
-0.068720 -0.170616 -8.051535 135 114 77
-0.063981 -0.170616 -8.051535 72 67 53
-0.059524 -0.171429 -8.089875 46 48 44
-0.055288 -0.173077 -8.167663 44 45 43
-0.051724 -0.177340 -8.368836 41 42 40
-0.047500 -0.180000 -8.494369 38 38 36
-0.042714 -0.180905 -8.537054 46 41 33
-0.037688 -0.180905 -8.537054 55 46 34
-0.032500 -0.180000 -8.494369 55 46 35
-0.026699 -0.174757 -8.246960 80 64 46
-0.021226 -0.169811 -8.013556 101 78 54
-0.015909 -0.163636 -7.722154 112 93 66
-0.011364 -0.163636 -7.722154 112 99 76
0.001832 -0.131868 -6.222981 153 136 101
0.005226 -0.125436 -5.919421 163 142 103
0.008389 -0.120805 -5.700919 174 162 145
0.011438 -0.117647 -5.551875 180 188 198
0.014331 -0.114650 -5.410426 188 202 217
0.017241 -0.112853 -5.325623 203 217 235
0.020312 -0.112500 -5.308980 215 229 247
0.023438 -0.112500 -5.308980 222 235 251
0.026563 -0.112500 -5.308980 227 238 251
0.029874 -0.113208 -5.342371 216 228 245
0.033228 -0.113924 -5.376183 188 199 221
0.036624 -0.114650 -5.410426 157 173 198
0.039809 -0.114650 -5.410426 130 146 165
0.042857 -0.114286 -5.393250 102 110 104
0.045741 -0.113565 -5.359223 97 105 90
0.048287 -0.112150 -5.292442 90 97 84
0.050926 -0.111111 -5.243438 79 88 76
0.053517 -0.110092 -5.195333 82 91 77
0.056575 -0.110092 -5.195333 104 111 97
0.060000 -0.110769 -5.227304 140 147 134
0.064465 -0.113208 -5.342371 160 170 164
0.069132 -0.115756 -5.462616 117 136 151
0.072347 -0.115756 -5.462616 81 106 134
0.075563 -0.115756 -5.462616 78 102 133
0.079288 -0.116505 -5.497973 80 105 137
0.082524 -0.116505 -5.497973 79 106 139
0.203846 -0.276923 -13.068260 76 103 136
0.213178 -0.279070 -13.169564 74 102 138
0.217557 -0.274809 -12.968502 81 108 149
0.221805 -0.270677 -12.773487 83 109 150
0.219424 -0.258993 -12.222114 79 106 145
0.220280 -0.251748 -11.880237 106 131 160
0.222603 -0.246575 -11.636122 129 154 176
0.224832 -0.241611 -11.401837 135 180 215
0.222581 -0.232258 -10.960476 140 207 250
0.223270 -0.226415 -10.684741 142 212 254
0.229560 -0.226415 -10.684741 142 212 254
0.288462 -0.276923 -13.068260 143 213 254
0.300781 -0.281250 -13.272451 145 214 254
0.237952 -0.216867 -10.234179 146 214 254
0.241071 -0.214286 -10.112344 147 215 254
0.239884 -0.208092 -9.820080 147 216 255
0.247093 -0.209302 -9.877173 148 217 254
1.375000 -1.000000 -47.190937 154 221 254
0.971154 -0.692308 -32.670650 155 221 255
0.919643 -0.642857 -30.337032 156 222 255
0.416667 -0.285714 -13.483126 157 222 255
0.835938 -0.562500 -26.544903 157 222 255
10.900000 -7.200000 -339.774750 156 222 255
inf -inf -inf 156 222 255
-3.718750 2.250000 106.179611 156 222 255
-3.781250 2.250000 106.179611 156 222 255
-3.843750 2.250000 106.179611 156 222 255
-3.906250 2.250000 106.179611 156 222 254
-12.700000 7.200000 339.774750 156 222 255
4.156250 -2.250000 -106.179611 156 222 255
1.406250 -0.750000 -35.393204 157 222 255
1.802632 -0.947368 -44.707203 157 222 255
0.422414 -0.206897 -9.763642 158 223 254
0.407104 -0.196721 -9.283463 158 223 255
0.408108 -0.194595 -9.183102 157 223 255
0.447368 -0.210526 -9.934935 157 223 254
0.490625 -0.225000 -10.617961 159 223 254
0.467647 -0.211765 -9.993375 159 224 254
0.473529 -0.211765 -9.993375 159 223 254
0.471098 -0.208092 -9.820080 159 223 255
0.503049 -0.219512 -10.358987 159 223 254
0.488304 -0.210526 -9.934935 159 223 254
0.491279 -0.209302 -9.877173 159 223 254
0.497093 -0.209302 -9.877173 159 223 254
0.494286 -0.205714 -9.707850 158 223 254
0.508721 -0.209302 -9.877173 158 223 255
0.516949 -0.203390 -9.598157 157 223 255
0.522599 -0.203390 -9.598157 157 223 255
0.528249 -0.203390 -9.598157 158 223 255
0.536932 -0.204545 -9.652692 158 223 255
0.542614 -0.204545 -9.652692 158 223 255
0.548295 -0.204545 -9.652692 159 223 255
0.553977 -0.204545 -9.652692 159 223 255
0.559659 -0.204545 -9.652692 158 223 255
0.565341 -0.204545 -9.652692 158 223 255
0.571023 -0.204545 -9.652692 158 222 255
0.576705 -0.204545 -9.652692 158 222 255
0.582386 -0.204545 -9.652692 158 222 255
0.588068 -0.204545 -9.652692 158 222 255
0.604046 -0.208092 -9.820080 158 222 255
0.609827 -0.208092 -9.820080 158 222 255
0.612069 -0.206897 -9.763642 158 222 255
0.610795 -0.204545 -9.652692 158 222 255
0.616477 -0.204545 -9.652692 157 221 255
0.644886 -0.204545 -9.652692 157 220 255
0.643258 -0.202247 -9.544234 157 220 255
0.648876 -0.202247 -9.544234 156 220 255
0.654494 -0.202247 -9.544234 157 220 255
0.910853 -0.279070 -13.169564 157 220 255
0.933071 -0.283465 -13.376959 156 219 255
-29.250000 -18.500000 -849.436890 159 223 254
-0.171131 -0.110119 -5.056172 159 223 255
-28.250000 -18.500000 -849.436890 159 223 255
-inf -inf -inf 160 223 254
27.250000 18.500000 849.436890 159 223 254
3.343750 2.312500 106.179611 159 223 255
3.281250 2.312500 106.179611 159 223 255
3.218750 2.312500 106.179611 158 223 255
-0.159810 -0.117089 -5.376183 158 223 255
-0.153251 -0.114551 -5.259671 158 223 255
-0.150155 -0.114551 -5.259671 158 223 255
-0.147059 -0.114551 -5.259671 157 222 255
-0.141768 -0.112805 -5.179493 157 223 255
-0.135417 -0.110119 -5.056172 157 223 255
-0.131268 -0.109145 -5.011427 158 223 255
-0.128319 -0.109145 -5.011427 158 223 255
-0.125369 -0.109145 -5.011427 158 223 255
-0.122419 -0.109145 -5.011427 158 223 255
-0.120536 -0.110119 -5.056172 158 222 255
-0.118619 -0.111111 -5.101723 158 222 254
-0.116667 -0.112121 -5.148102 157 222 255
-7.500000 -7.400000 -339.774750 157 222 255
-7.300000 -7.400000 -339.774750 156 222 255
-11.833333 -12.333333 -566.291260 155 221 255
-11.500000 -12.333333 -566.291260 153 220 254
-33.500000 -37.000000 -1698.873779 149 211 248
32.500000 37.000000 1698.873779 132 167 200
4.500000 5.285714 242.696259 106 117 128
1.906250 2.312500 106.179611 101 100 101
-0.085784 -0.181373 -8.327812 131 123 104
-0.080097 -0.179612 -8.246960 131 123 103
-0.074879 -0.178744 -8.207120 145 131 101
-0.069048 -0.176190 -8.089875 129 110 75
-0.063981 -0.175355 -8.051535 70 64 51
-0.059242 -0.175355 -8.051535 43 45 42
-0.054502 -0.175355 -8.051535 40 41 39
-0.050000 -0.176190 -8.089875 35 37 35
-0.046798 -0.182266 -8.368836 33 34 31
-0.046196 -0.201087 -9.233009 38 37 30
-0.040761 -0.201087 -9.233009 47 42 32
-0.033163 -0.188776 -8.667724 49 44 33
-0.027500 -0.185000 -8.494369 67 57 41
-0.021845 -0.179612 -8.246960 82 68 49
-0.016509 -0.174528 -8.013556 89 79 56
0.001742 -0.128920 -5.919421 116 112 92
0.005034 -0.124161 -5.700919 121 113 93
0.008170 -0.120915 -5.551875 135 128 117
0.011182 -0.118211 -5.427712 157 164 168
0.014196 -0.116719 -5.359223 184 197 207
0.017188 -0.115625 -5.308980 195 210 224
0.020312 -0.115625 -5.308980 202 216 235
0.023438 -0.115625 -5.308980 205 218 240
0.026563 -0.115625 -5.308980 202 214 236
0.029874 -0.116352 -5.342371 189 199 222
0.033228 -0.117089 -5.376183 165 176 198
0.036624 -0.117834 -5.410426 141 155 177
0.039809 -0.117834 -5.410426 143 158 172
0.042994 -0.117834 -5.410426 156 165 158
0.046032 -0.117460 -5.393250 168 176 164
0.048137 -0.114907 -5.276006 171 180 168
0.027318 -0.061258 -2.812705 173 183 171
0.029070 -0.061462 -2.822049 177 188 175
0.056923 -0.113846 -5.227304 185 196 183
0.061321 -0.116352 -5.342371 189 199 189
0.065916 -0.118971 -5.462616 159 172 173
0.069132 -0.118971 -5.462616 99 121 143
0.072581 -0.119355 -5.480238 84 110 138
0.076052 -0.119741 -5.497973 83 108 138
0.079545 -0.120130 -5.515824 86 112 144
0.083062 -0.120521 -5.533791 87 113 147
0.203846 -0.284615 -13.068260 80 109 143
0.211538 -0.284615 -13.068260 77 105 141
0.215909 -0.280303 -12.870255 81 107 146
0.213768 -0.268116 -12.310679 86 112 151
0.217857 -0.264286 -12.134812 82 108 148
0.218750 -0.256944 -11.797734 102 126 156
0.219595 -0.250000 -11.478877 133 155 170
0.220395 -0.243421 -11.176801 135 168 197
0.216981 -0.232704 -10.684741 133 195 239
0.219136 -0.228395 -10.486876 141 210 254
0.225309 -0.228395 -10.486876 142 211 254
0.232919 -0.229814 -10.552011 143 212 254
0.233333 -0.224242 -10.296205 144 213 254
0.236527 -0.221557 -10.172897 145 214 255
0.234104 -0.213873 -9.820080 146 215 255
0.237143 -0.211429 -9.707850 147 216 255
0.241477 -0.210227 -9.652692 148 217 254
0.248571 -0.211429 -9.707850 149 217 254
0.258721 -0.215116 -9.877173 151 218 254
0.260000 -0.211429 -9.707850 152 219 254
0.265714 -0.211429 -9.707850 153 219 254
0.274566 -0.213873 -9.820080 153 220 254
1.347222 -1.027778 -47.190937 154 220 254
1.269231 -0.948718 -43.560867 154 221 254
0.971154 -0.711538 -32.670650 155 221 255
0.936364 -0.672727 -30.888615 155 221 255
0.833333 -0.587302 -26.966251 155 222 255
0.849206 -0.587302 -26.966251 156 222 255
27.250000 -18.500000 -849.436890 156 222 255
inf -inf -inf 156 222 255
-3.781250 2.312500 106.179611 156 222 255
-3.843750 2.312500 106.179611 156 221 255
-3.906250 2.312500 106.179611 156 222 255
-10.583333 6.166667 283.145630 156 222 255
1.750000 -0.973684 -44.707203 156 222 255
0.401786 -0.220238 -10.112344 157 222 255
1.427083 -0.770833 -35.393204 157 222 255
0.441358 -0.228395 -10.486876 158 223 255
0.436747 -0.222892 -10.234179 159 223 254
0.410615 -0.206704 -9.490915 159 223 255
0.402703 -0.200000 -9.183102 159 223 255
0.401596 -0.196809 -9.036563 158 223 255
0.406915 -0.196809 -9.036563 158 224 254
0.453216 -0.216374 -9.934935 159 224 254
0.461765 -0.217647 -9.993375 159 223 254
0.456897 -0.212644 -9.763642 159 224 255
0.462644 -0.212644 -9.763642 159 224 255
0.463068 -0.210227 -9.652692 159 223 255
0.474138 -0.212644 -9.763642 159 223 255
0.479885 -0.212644 -9.763642 158 223 254
0.480114 -0.210227 -9.652692 158 223 254
0.485795 -0.210227 -9.652692 158 223 254
0.491477 -0.210227 -9.652692 158 223 255
0.500000 -0.211429 -9.707850 158 223 255
0.497191 -0.207865 -9.544234 158 223 255
0.505587 -0.206704 -9.490915 158 223 255
0.511173 -0.206704 -9.490915 157 223 255
0.516760 -0.206704 -9.490915 158 223 255
0.528249 -0.209040 -9.598157 158 223 255
0.533898 -0.209040 -9.598157 158 223 255
0.533520 -0.206704 -9.490915 158 223 254
0.536111 -0.205556 -9.438188 159 223 254
0.541667 -0.205556 -9.438188 159 222 255
0.547222 -0.205556 -9.438188 158 222 255
0.555866 -0.206704 -9.490915 158 222 254
0.567797 -0.209040 -9.598157 158 222 254
0.576705 -0.210227 -9.652692 158 222 255
0.582386 -0.210227 -9.652692 158 222 255
0.584746 -0.209040 -9.598157 158 222 255
0.590395 -0.209040 -9.598157 158 221 255
0.596045 -0.209040 -9.598157 157 221 255
0.601695 -0.209040 -9.598157 157 221 255
0.607345 -0.209040 -9.598157 157 221 255
0.609551 -0.207865 -9.544234 157 221 255
0.615169 -0.207865 -9.544234 157 221 255
0.620786 -0.207865 -9.544234 157 220 255
0.622905 -0.206704 -9.490915 156 220 255
0.628492 -0.206704 -9.490915 156 220 255
0.634078 -0.206704 -9.490915 156 220 255
0.632597 -0.204420 -9.386043 156 220 255
0.638122 -0.204420 -9.386043 156 220 255
0.640110 -0.203297 -9.334472 156 220 255
0.645604 -0.203297 -9.334472 156 220 255
0.651099 -0.203297 -9.334472 155 220 255
-0.177812 -0.115502 -5.163750 159 224 254
-0.170118 -0.112426 -5.026254 160 224 255
-0.170695 -0.114804 -5.132549 160 223 255
-0.166168 -0.113772 -5.086449 160 224 254
-0.164157 -0.114458 -5.117090 159 224 255
-0.161145 -0.114458 -5.117090 159 223 255
-0.160550 -0.116208 -5.195333 159 223 255
-0.160938 -0.118750 -5.308980 159 223 255
-0.155864 -0.117284 -5.243438 159 223 255
-0.152308 -0.116923 -5.227304 158 223 255
-0.148773 -0.116564 -5.211269 157 223 255
-0.144817 -0.115854 -5.179493 158 223 255
-0.138806 -0.113433 -5.071265 158 223 255
-0.134615 -0.112426 -5.026254 157 222 255
-0.130499 -0.111437 -4.982035 157 222 255
-0.127566 -0.111437 -4.982035 158 223 255
-0.125369 -0.112094 -5.011427 158 223 255
-0.122419 -0.112094 -5.011427 158 223 255
-0.120178 -0.112760 -5.041169 158 222 255
-0.117910 -0.113433 -5.071265 158 222 255
-0.115616 -0.114114 -5.101723 157 222 255
-0.112613 -0.114114 -5.101723 157 222 255
-0.109940 -0.114458 -5.117090 156 222 255
-0.105655 -0.113095 -5.056172 155 221 255
-0.102679 -0.113095 -5.056172 154 220 254
-11.166667 -12.666667 -566.291260 147 209 246
4.642857 5.428571 242.696259 121 161 193
4.500000 5.428571 242.696259 105 117 124
1.906250 2.375000 106.179611 95 93 97
-0.112981 -0.182692 -8.167663 110 106 104
-0.107656 -0.181818 -8.128583 138 138 134
-0.085784 -0.186275 -8.327812 122 112 96
-0.080097 -0.184466 -8.246960 116 108 94
-0.075243 -0.184466 -8.246960 131 118 94
-0.069712 -0.182692 -8.167663 121 103 73
-0.064286 -0.180952 -8.089875 68 61 50
-0.059524 -0.180952 -8.089875 46 47 43
-0.054762 -0.180952 -8.089875 53 55 48
-0.050000 -0.180952 -8.089875 68 71 64
-0.016827 -0.182692 -8.167663 166 169 153
-0.011628 -0.176744 -7.901739 167 172 158
-0.006637 -0.168142 -7.517140 175 181 167
-0.001742 -0.132404 -5.919421 180 186 173
0.001695 -0.128814 -5.758894 175 180 167
0.004950 -0.125413 -5.606844 156 161 148
0.007987 -0.121406 -5.427712 144 148 136
0.011041 -0.119874 -5.359223 152 159 156
0.014019 -0.118380 -5.292442 180 191 196
0.016923 -0.116923 -5.227304 182 194 204
0.020000 -0.116923 -5.227304 172 183 201
0.023077 -0.116923 -5.227304 169 180 203
0.026398 -0.118012 -5.276006 165 175 199
0.029595 -0.118380 -5.292442 156 165 186
0.032710 -0.118380 -5.292442 145 154 170
0.035937 -0.118750 -5.308980 135 147 159
0.039062 -0.118750 -5.308980 157 168 173
0.042188 -0.118750 -5.308980 191 201 195
0.023163 -0.060703 -2.713856 203 214 206
0.024840 -0.060897 -2.722554 209 221 213
0.027005 -0.062193 -2.780481 214 229 220
0.029070 -0.063123 -2.822049 214 229 219
0.030988 -0.063652 -2.845685 209 223 215
0.061905 -0.120635 -5.393250 191 205 202
0.066129 -0.122581 -5.480238 132 150 162
0.069355 -0.122581 -5.480238 89 113 137
0.072581 -0.122581 -5.480238 87 111 141
0.076299 -0.123377 -5.515824 86 110 139
0.079545 -0.123377 -5.515824 89 114 145
0.083062 -0.123778 -5.533791 90 115 148
0.203846 -0.292308 -13.068260 84 111 144
0.214286 -0.285714 -12.773487 84 109 144
0.212230 -0.273381 -12.222114 85 110 148
0.214789 -0.267606 -11.963900 81 106 148
0.217241 -0.262069 -11.716371 94 120 152
0.215232 -0.251656 -11.250820 127 152 173
0.213376 -0.242038 -10.820852 117 147 181
0.212963 -0.234568 -10.486876 121 177 225
0.213855 -0.228916 -10.234179 140 209 253
0.218563 -0.227545 -10.172897 143 211 254
0.224551 -0.227545 -10.172897 143 212 254
0.230539 -0.227545 -10.172897 144 214 254
0.229651 -0.220930 -9.877173 146 214 254
0.231429 -0.217143 -9.707850 147 215 254
0.230556 -0.211111 -9.438188 148 216 255
0.234807 -0.209945 -9.386043 148 217 255
0.230159 -0.201058 -8.988750 148 217 254
0.248603 -0.212290 -9.490915 150 218 254
0.254190 -0.212290 -9.490915 151 218 255
0.259777 -0.212290 -9.490915 152 218 254
0.263889 -0.211111 -9.438188 152 219 254
0.280347 -0.219653 -9.820080 153 219 254
0.951923 -0.730769 -32.670650 154 220 254
0.971154 -0.730769 -32.670650 155 220 254
0.919643 -0.678571 -30.337032 155 220 255
0.937500 -0.678571 -30.337032 155 221 255
inf -inf -inf 156 222 255
inf -inf -inf 156 222 255
inf -inf -inf 156 222 255
-3.843750 2.375000 106.179611 156 222 255
-3.906250 2.375000 106.179611 155 222 255
-10.583333 6.333333 283.145630 156 222 255
0.395833 -0.226190 -10.112344 157 223 255
0.392442 -0.220930 -9.877173 157 223 255
0.389205 -0.215909 -9.652692 157 223 255
0.430723 -0.228916 -10.234179 158 223 255
0.383598 -0.201058 -8.988750 159 223 254
0.384817 -0.198953 -8.894628 159 224 254
0.396277 -0.202128 -9.036563 159 224 255
0.401596 -0.202128 -9.036563 159 224 255
0.425000 -0.211111 -9.438188 159 224 254
0.440341 -0.215909 -9.652692 159 224 254
0.448571 -0.217143 -9.707850 159 224 255
0.454286 -0.217143 -9.707850 159 224 255
0.454802 -0.214689 -9.598157 158 224 255
0.457865 -0.213483 -9.544234 158 223 255
0.458333 -0.211111 -9.438188 158 223 255
0.463889 -0.211111 -9.438188 158 223 255
0.469444 -0.211111 -9.438188 158 223 254
0.467213 -0.207650 -9.283463 158 223 254
0.465054 -0.204301 -9.133730 158 223 254
0.455729 -0.197917 -8.848301 158 223 255
0.458549 -0.196891 -8.802455 157 223 255
0.471053 -0.200000 -8.941441 158 222 255
0.494536 -0.207650 -9.283463 158 223 255
0.508333 -0.211111 -9.438188 158 223 255
0.513889 -0.211111 -9.438188 158 223 255
0.519444 -0.211111 -9.438188 158 222 255
0.525000 -0.211111 -9.438188 157 222 254
